-36.09,-13.055,6.715,255,255,125
-28.88,5.075,-0.695,255,255,125
-48.65,-17.395,-3.565,255,255,125
-34.0,12.045,-0.865,255,255,125
15.75,30.805,2.395,255,255,125
-47.63,15.395,-5.125,255,255,125
-23.17,-42.935,0.475,255,255,125
14.43,-47.175,-3.205,255,255,125
38.91,20.905,-6.935,255,255,125
40.79,-1.595,5.065,255,255,125
20.23,1.685,-5.595,255,255,125
26.15,-6.565,-0.155,255,255,125
-44.1,-16.715,-3.885,255,255,125
-17.26,-32.595,-2.945,255,255,125
22.55,-14.495,-2.855,255,255,125
6.03,54.715,-7.265,255,255,125
-42.75,-28.995,-3.135,255,255,125
40.11,31.745,5.845,255,255,125
38.48,-3.065,4.255,255,255,125
37.07,-16.795,-5.585,255,255,125
51.29,16.635,-7.225,255,255,125
-2.76,41.255,-5.535,255,255,125
43.74,28.385,-1.515,255,255,125
-11.06,-36.695,-1.135,255,255,125
38.51,18.085,-6.915,255,255,125
27.73,9.555,3.645,255,255,125
8.85,-9.085,-4.875,255,255,125
33.14,-6.395,-5.765,255,255,125
16.46,45.025,-7.085,255,255,125
-6.51,-13.565,-3.535,255,255,125
-1.78,23.365,-6.035,255,255,125
17.9,-2.525,-5.115,255,255,125
-29.74,38.135,3.205,255,255,125
-23.51,47.785,-6.935,255,255,125
9.82,-11.805,-4.605,255,255,125
33.33,-39.035,-2.955,255,255,125
22.46,-44.385,-3.065,255,255,125
-30.84,-11.415,-4.185,255,255,125
22.79,-45.625,2.725,255,255,125
-2.44,-41.635,-2.675,255,255,125
-8.66,-50.195,-2.085,255,255,125
18.35,-7.625,-3.715,255,255,125
21.29,-3.735,-5.715,255,255,125
-0.16,-40.155,-2.915,255,255,125
13.38,40.195,-4.475,255,255,125
45.33,10.165,-6.585,255,255,125
0.48,-24.605,-2.085,255,255,125
-4.42,-51.095,0.755,255,255,125
-29.46,42.995,-6.755,255,255,125
25.49,-28.105,3.125,255,255,125
-9.38,-8.895,-4.365,255,255,125
-7.06,16.515,-5.605,255,255,125
32.89,-19.895,-4.105,255,255,125
-21.37,49.005,1.195,255,255,125
-5.62,-19.575,0.855,255,255,125
9.85,-22.715,-1.635,255,255,125
-47.29,-28.425,-2.955,255,255,125
34.07,-27.435,-3.745,255,255,125
-0.89,34.815,2.755,255,255,125
25.25,12.465,-6.455,255,255,125
-28.12,-15.115,-4.295,255,255,125
-17.8,10.755,-2.795,255,255,125
21.22,-43.435,-3.075,255,255,125
-25.8,-22.835,-3.605,255,255,125
-12.23,19.895,-5.945,255,255,125
-7.49,28.745,-5.625,255,255,125
-25.54,-14.305,-4.315,255,255,125
19.33,-13.875,-4.555,255,255,125
8.19,2.235,-4.725,255,255,125
9.88,9.665,-4.045,255,255,125
-46.35,-20.365,3.425,255,255,125
-19.95,-31.925,-2.625,255,255,125
-29.02,10.195,-0.845,255,255,125
-27.02,32.545,2.225,255,255,125
50.9,-17.565,-1.185,255,255,125
-1.42,-0.015,-2.215,255,255,125
5.16,13.655,-5.265,255,255,125
-19.37,36.295,-4.175,255,255,125
40.47,-32.485,3.865,255,255,125
-45.16,-27.335,-2.975,255,255,125
-37.28,-29.185,5.185,255,255,125
47.68,27.905,1.845,255,255,125
-6.69,4.535,2.315,255,255,125
-24.61,19.885,-5.785,255,255,125
49.04,-14.525,-5.025,255,255,125
10.94,53.405,-5.905,255,255,125
14.57,13.445,-6.205,255,255,125
29.35,-38.465,4.455,255,255,125
-8.42,43.085,-4.395,255,255,125
-9.12,12.135,-5.615,255,255,125
13.87,-43.865,-3.425,255,255,125
-6.25,-45.825,-2.565,255,255,125
-6.68,-26.455,-3.515,255,255,125
18.56,-45.145,-3.205,255,255,125
-20.89,15.835,-1.715,255,255,125
-14.31,8.355,3.485,255,255,125
-53.28,5.425,-4.655,255,255,125
24.94,-9.095,-5.745,255,255,125
-23.22,-28.135,-2.915,255,255,125
-29.99,15.115,-4.345,255,255,125
-39.37,-31.285,3.865,255,255,125
47.55,-13.595,-5.535,255,255,125
8.66,-50.845,-2.405,255,255,125
-12.06,-8.095,-1.735,255,255,125
-12.27,-13.145,-1.755,255,255,125
14.27,-50.355,-2.985,255,255,125
16.74,39.875,-3.485,255,255,125
-15.02,-11.295,-1.965,255,255,125
-27.0,-16.095,-4.325,255,255,125
-1.01,14.915,-5.085,255,255,125
-19.5,20.205,-5.815,255,255,125
17.19,-46.115,-3.195,255,255,125
-25.28,-40.235,3.935,255,255,125
38.67,15.995,-6.955,255,255,125
23.23,-23.715,-1.565,255,255,125
-32.41,-38.835,-2.525,255,255,125
18.9,-48.595,0.035,255,255,125
-25.03,4.195,-4.545,255,255,125
-6.44,-6.125,-0.295,255,255,125
15.68,-8.405,-5.005,255,255,125
15.48,24.105,-4.915,255,255,125
2.7,-49.195,5.825,255,255,125
20.67,-11.705,-4.595,255,255,125
-23.54,17.285,-5.825,255,255,125
-9.3,20.505,-6.025,255,255,125
19.13,6.645,-2.675,255,255,125
-9.62,-38.515,-2.895,255,255,125
24.62,-27.815,0.305,255,255,125
41.62,27.135,-7.375,255,255,125
-27.76,7.265,-4.655,255,255,125
0.76,-11.545,1.995,255,255,125
9.48,38.745,1.555,255,255,125
15.32,52.975,-6.065,255,255,125
30.72,31.265,-6.815,255,255,125
-36.79,9.145,-0.685,255,255,125
7.59,11.505,-6.875,255,255,125
-22.95,49.325,3.135,255,255,125
-5.06,-12.825,2.195,255,255,125
-10.06,-31.695,-2.255,255,255,125
-29.22,-39.855,2.635,255,255,125
-23.22,8.695,-4.915,255,255,125
-41.39,-34.995,-2.715,255,255,125
-19.54,-36.275,-2.405,255,255,125
-18.96,-5.605,-1.985,255,255,125
-28.32,-19.295,-3.595,255,255,125
-39.34,9.065,2.005,255,255,125
-0.5,44.225,-6.305,255,255,125
42.69,-29.325,-4.985,255,255,125
-43.8,14.575,-5.055,255,255,125
-4.41,48.965,-6.395,255,255,125
-28.3,32.855,2.585,255,255,125
10.01,-13.055,-2.755,255,255,125
8.84,-11.285,-3.525,255,255,125
47.2,-1.995,-6.315,255,255,125
-38.83,-22.535,-0.435,255,255,125
-13.02,-49.425,-0.945,255,255,125
7.66,45.745,-7.015,255,255,125
-19.21,-44.245,0.105,255,255,125
14.25,40.225,-1.965,255,255,125
10.61,-38.125,-1.455,255,255,125
37.45,-38.145,0.005,255,255,125
-6.16,-43.545,-2.605,255,255,125
-15.63,41.865,0.405,255,255,125
-12.23,11.575,1.225,255,255,125
-15.35,52.505,-2.435,255,255,125
-23.64,6.215,-4.735,255,255,125
-16.06,-52.445,0.115,255,255,125
19.34,8.245,-1.995,255,255,125
-8.15,-35.215,0.095,255,255,125
-43.41,32.035,1.165,255,255,125
43.71,-25.885,-0.915,255,255,125
-25.32,41.745,-6.695,255,255,125
-9.94,28.765,-4.095,255,255,125
5.41,-5.005,-4.645,255,255,125
-47.6,-13.025,-1.935,255,255,125
32.94,-24.105,-4.395,255,255,125
-21.97,-30.275,-2.915,255,255,125
-19.78,27.235,-5.635,255,255,125
43.75,-27.615,-1.645,255,255,125
-20.42,-25.775,-3.255,255,255,125
-19.36,50.385,-6.325,255,255,125
-27.26,-12.605,-4.345,255,255,125
3.38,-24.355,-2.045,255,255,125
15.59,5.315,-5.675,255,255,125
29.3,-13.835,-1.355,255,255,125
0.61,-16.895,2.975,255,255,125
-21.84,-27.105,-3.105,255,255,125
-32.16,-11.875,4.225,255,255,125
18.11,4.715,-4.115,255,255,125
18.2,-27.065,-4.015,255,255,125
-29.06,8.445,-0.855,255,255,125
-23.69,-24.095,-3.225,255,255,125
25.77,-23.455,-4.075,255,255,125
-0.29,-27.315,-2.715,255,255,125
-15.39,-35.415,-0.755,255,255,125
-1.31,-24.035,-3.535,255,255,125
39.19,-37.315,1.005,255,255,125
4.1,-9.055,-4.735,255,255,125
16.83,-9.245,-4.945,255,255,125
26.43,-46.765,5.265,255,255,125
30.72,-26.715,-4.265,255,255,125
32.43,8.775,4.295,255,255,125
-12.83,-25.335,0.305,255,255,125
-35.04,-22.345,2.755,255,255,125
-28.69,15.045,-2.525,255,255,125
-18.49,38.025,-6.075,255,255,125
-33.31,-1.305,4.625,255,255,125
36.73,7.795,5.055,255,255,125
-0.17,27.275,-4.645,255,255,125
14.1,8.145,-3.605,255,255,125
39.67,0.635,6.535,255,255,125
44.68,-24.145,-2.925,255,255,125
-27.0,-11.495,6.115,255,255,125
-29.77,21.995,-5.665,255,255,125
19.27,-41.945,-1.065,255,255,125
-22.53,27.235,-5.715,255,255,125
24.1,5.985,5.785,255,255,125
-14.48,-51.265,-2.015,255,255,125
39.61,-30.715,-0.815,255,255,125
32.37,10.805,-2.995,255,255,125
27.65,-33.475,5.615,255,255,125
19.44,-24.205,-0.325,255,255,125
1.32,55.215,-5.495,255,255,125
-0.32,-22.465,-2.405,255,255,125
43.76,-20.665,-5.565,255,255,125
-21.57,31.175,-3.425,255,255,125
-10.01,-28.565,-0.145,255,255,125
-48.6,-13.925,-0.415,255,255,125
-31.34,-5.825,2.095,255,255,125
37.43,-31.255,-4.555,255,255,125
3.7,-44.675,3.505,255,255,125
-5.35,-10.385,-3.665,255,255,125
10.18,26.755,-6.235,255,255,125
13.38,-22.065,-4.435,255,255,125
-41.44,-13.655,3.385,255,255,125
-20.05,49.145,-2.325,255,255,125
12.12,8.095,-5.855,255,255,125
41.16,-31.325,1.195,255,255,125
-23.9,-9.475,-4.315,255,255,125
-22.83,36.475,-6.445,255,255,125
17.02,-20.045,-4.425,255,255,125
43.67,-22.645,-5.505,255,255,125
22.27,9.125,-1.585,255,255,125
12.04,40.215,-6.145,255,255,125
-28.53,26.885,-5.685,255,255,125
33.39,23.645,-6.745,255,255,125
16.89,9.305,-5.955,255,255,125
43.63,-0.715,-5.825,255,255,125
26.11,30.635,-6.735,255,255,125
43.26,-11.185,-5.825,255,255,125
-6.69,-0.945,-3.455,255,255,125
-48.38,2.865,-2.435,255,255,125
-22.2,15.205,-2.875,255,255,125
32.61,-10.695,-5.725,255,255,125
-43.36,-33.085,-1.955,255,255,125
17.46,-11.935,-4.795,255,255,125
-33.82,-19.095,-3.515,255,255,125
-19.95,-11.545,-1.935,255,255,125
-26.38,-24.695,-3.275,255,255,125
-28.33,30.545,-5.835,255,255,125
-32.15,27.185,-5.655,255,255,125
12.04,41.325,-6.975,255,255,125
-34.19,31.735,1.335,255,255,125
20.89,-47.245,0.595,255,255,125
-23.41,-17.505,-4.255,255,255,125
-26.27,-36.365,-2.715,255,255,125
-42.12,0.605,4.455,255,255,125
-25.37,-32.655,-2.995,255,255,125
9.46,9.515,-7.265,255,255,125
-2.46,36.915,2.725,255,255,125
-20.04,-34.235,-2.695,255,255,125
-14.09,39.325,1.785,255,255,125
8.92,34.845,3.995,255,255,125
9.79,5.895,-4.685,255,255,125
21.88,-18.865,-0.685,255,255,125
11.2,24.445,-6.155,255,255,125
-12.73,26.295,-5.395,255,255,125
28.6,-3.025,4.645,255,255,125
-22.6,-44.545,0.455,255,255,125
31.99,20.215,-6.785,255,255,125
30.28,8.455,4.495,255,255,125
23.02,-29.825,-0.345,255,255,125
-7.64,42.825,-3.165,255,255,125
2.48,40.435,-6.345,255,255,125
-40.38,2.245,5.405,255,255,125
-23.68,48.245,-1.425,255,255,125
43.85,28.395,-3.915,255,255,125
-46.47,12.875,-4.985,255,255,125
1.52,48.505,-6.545,255,255,125
-16.98,27.785,-5.405,255,255,125
-13.95,-21.955,2.255,255,255,125
-35.7,0.165,6.025,255,255,125
31.6,-3.555,4.165,255,255,125
36.73,25.435,-7.095,255,255,125
27.62,17.725,-6.675,255,255,125
-33.33,14.625,-0.825,255,255,125
1.31,-38.815,-2.125,255,255,125
27.56,32.515,-6.825,255,255,125
-41.45,-30.525,4.425,255,255,125
-18.11,50.455,-2.995,255,255,125
15.97,-14.155,-4.725,255,255,125
-15.7,39.615,1.675,255,255,125
-11.26,-1.105,-4.245,255,255,125
-48.29,-5.705,-3.985,255,255,125
30.85,22.685,-6.615,255,255,125
-47.67,22.665,-5.375,255,255,125
-27.68,-31.635,4.935,255,255,125
7.88,43.965,-6.955,255,255,125
37.87,4.365,7.285,255,255,125
41.94,34.285,3.775,255,255,125
-14.69,-37.595,-0.715,255,255,125
-0.87,11.815,-4.945,255,255,125
1.88,-18.965,2.005,255,255,125
-41.0,-5.005,4.975,255,255,125
6.33,-17.705,0.235,255,255,125
-26.46,-0.015,-4.535,255,255,125
7.74,7.485,-3.975,255,255,125
47.01,5.325,-3.435,255,255,125
19.3,13.105,-2.875,255,255,125
-43.31,8.245,-0.795,255,255,125
19.5,-18.375,-0.985,255,255,125
-52.4,-11.765,-3.855,255,255,125
-17.14,-28.105,-1.115,255,255,125
-41.17,31.005,0.495,255,255,125
-16.24,33.365,1.635,255,255,125
-47.94,-20.025,2.405,255,255,125
20.7,-15.645,-2.395,255,255,125
-50.58,-1.645,-4.275,255,255,125
-46.22,-19.035,-1.795,255,255,125
-34.96,27.375,-5.415,255,255,125
-4.11,15.905,-4.515,255,255,125
11.31,8.295,-4.495,255,255,125
-23.01,-40.925,-2.135,255,255,125
-8.12,14.055,-4.665,255,255,125
-40.1,-29.075,5.325,255,255,125
-38.37,0.105000004,6.935,255,255,125
5.45,48.185,-5.495,255,255,125
-8.75,-28.225,-1.175,255,255,125
-40.83,-15.505,0.475,255,255,125
-22.35,47.245,-2.405,255,255,125
-15.05,-46.055,-0.055,255,255,125
17.39,-28.355,-4.015,255,255,125
-26.48,-37.585,2.405,255,255,125
20.76,-37.325,-0.335,255,255,125
-32.68,17.285,-5.555,255,255,125
-26.49,47.125,-6.075,255,255,125
43.15,11.225,-7.465,255,255,125
26.67,-11.515,-5.755,255,255,125
-19.98,-47.965,-2.145,255,255,125
-36.6,-7.575,7.235,255,255,125
-3.77,30.975,0.545,255,255,125
-13.96,41.585,0.535,255,255,125
-6.69,-21.015,-2.845,255,255,125
7.61,21.675,-6.275,255,255,125
0.06,-29.555,3.145,255,255,125
1.56,-1.685,-4.715,255,255,125
0.52,-19.945,1.915,255,255,125
9.47,-1.695,-4.735,255,255,125
39.32,-17.855,-5.635,255,255,125
-33.25,-40.755,-1.235,255,255,125
-17.25,4.135,-2.275,255,255,125
-37.99,9.765,-0.785,255,255,125
44.97,1.155,-4.735,255,255,125
-47.08,-1.165,-2.285,255,255,125
-36.25,-22.655,-0.435,255,255,125
24.91,33.145,-6.685,255,255,125
-5.87,38.765,1.785,255,255,125
40.79,10.625,-3.105,255,255,125
28.95,-16.705,-5.725,255,255,125
2.21,35.295,-5.645,255,255,125
35.2,28.905,4.295,255,255,125
-40.1,-36.065,-2.725,255,255,125
1.53,0.185,-1.835,255,255,125
-17.18,38.115,-4.455,255,255,125
-3.98,26.325,-4.315,255,255,125
30.35,4.385,7.005,255,255,125
25.64,-20.215,-3.825,255,255,125
-20.29,-3.485,-1.905,255,255,125
41.63,9.105,-7.545,255,255,125
31.46,2.805,8.095,255,255,125
20.82,-49.945,-0.605,255,255,125
-44.54,9.635,-4.515,255,255,125
13.34,-12.955,-4.885,255,255,125
19.72,-34.725,-3.595,255,255,125
24.4,-16.585,-2.695,255,255,125
-51.48,11.145,-4.945,255,255,125
19.51,-19.515,-0.165,255,255,125
-17.26,-11.895,-2.115,255,255,125
-33.13,-31.645,5.035,255,255,125
8.76,15.535,-6.255,255,255,125
-18.13,14.595,-3.215,255,255,125
32.89,-19.315,1.845,255,255,125
10.62,-7.235,-4.035,255,255,125
41.25,30.955,5.315,255,255,125
-22.39,50.245,2.345,255,255,125
-0.22,-10.305,-3.835,255,255,125
18.63,-43.765,-3.265,255,255,125
-28.02,-41.085,5.195,255,255,125
-39.54,-38.345,1.215,255,255,125
29.6,-27.515,-4.195,255,255,125
-5.55,27.015,-4.955,255,255,125
49.0,-20.775,-2.195,255,255,125
42.48,1.615,7.075,255,255,125
21.9,12.175,-2.285,255,255,125
-13.79,-17.875,-3.755,255,255,125
51.78,-14.165,-4.115,255,255,125
18.82,-39.655,-3.355,255,255,125
24.23,10.375,-1.165,255,255,125
2.88,51.015,-6.685,255,255,125
25.81,-24.945,1.075,255,255,125
-36.03,40.115,2.045,255,255,125
15.61,2.885,-5.545,255,255,125
-4.28,8.495,3.295,255,255,125
-31.6,-25.925,5.155,255,255,125
25.41,2.625,7.925,255,255,125
-20.22,-49.505,3.045,255,255,125
14.58,11.425,-6.055,255,255,125
19.01,-46.705,-0.265,255,255,125
-40.0,18.685,-5.445,255,255,125
-47.05,-4.815,-2.255,255,255,125
1.83,-14.585,3.695,255,255,125
-36.25,-22.075,-3.515,255,255,125
7.47,-31.155,-3.385,255,255,125
47.96,25.205,2.275,255,255,125
22.02,-23.745,-0.965,255,255,125
24.08,7.645,4.745,255,255,125
-8.1,0.565,-3.375,255,255,125
-38.61,-34.135,-2.835,255,255,125
12.12,5.975,-5.735,255,255,125
5.63,23.625,-6.115,255,255,125
13.04,25.895,-6.215,255,255,125
8.75,40.975,0.105,255,255,125
-11.35,-40.915,2.215,255,255,125
-35.1,-15.915,-4.165,255,255,125
49.25,1.335,7.225,255,255,125
53.5,5.065,5.765,255,255,125
26.7,2.315,8.025,255,255,125
-0.34,-26.345,-3.635,255,255,125
-28.54,18.365,-5.715,255,255,125
-9.07,14.045,-2.775,255,255,125
7.88,41.845,-6.845,255,255,125
3.48,35.235,-4.425,255,255,125
15.41,34.455,4.115,255,255,125
-51.44,18.485,-5.245,255,255,125
-0.16,-5.525,-3.845,255,255,125
-19.1,-25.015,-3.135,255,255,125
-23.07,-40.575,-0.075,255,255,125
-50.11,15.435,-5.215,255,255,125
-4.8,-45.605,-2.555,255,255,125
43.24,27.515,-7.415,255,255,125
5.26,0.615,-1.695,255,255,125
0.38,11.515,1.125,255,255,125
5.64,-16.105,3.505,255,255,125
-37.35,-15.465,1.405,255,255,125
27.52,35.265,-7.055,255,255,125
41.27,22.875,-6.925,255,255,125
20.02,-28.595,-3.815,255,255,125
-16.78,45.335,-6.265,255,255,125
-16.71,42.885,-0.075,255,255,125
46.36,-4.955,-4.905,255,255,125
35.38,11.075,-5.335,255,255,125
6.3,-22.275,-0.355,255,255,125
-0.55,41.105,-4.765,255,255,125
24.03,10.345,-2.475,255,255,125
-4.62,33.405,1.815,255,255,125
9.88,4.235,-3.445,255,255,125
-50.66,-3.895,-4.195,255,255,125
43.21,-34.335,3.295,255,255,125
14.35,20.105,-6.395,255,255,125
35.12,-20.275,0.555,255,255,125
-46.89,7.945,-2.875,255,255,125
13.35,-14.275,-4.775,255,255,125
30.78,-34.175,4.975,255,255,125
-20.73,29.775,-3.415,255,255,125
-50.33,13.975,-5.145,255,255,125
19.07,47.295,-4.635,255,255,125
22.99,9.685,3.415,255,255,125
-30.62,-41.135,2.865,255,255,125
-3.82,-18.065,2.075,255,255,125
14.26,41.065,-6.995,255,255,125
23.2,-36.465,3.415,255,255,125
-29.35,4.435,-4.505,255,255,125
30.23,-16.375,-5.665,255,255,125
-43.26,-0.445,3.765,255,255,125
5.42,40.435,-6.815,255,255,125
-5.14,-50.005,1.515,255,255,125
-5.6,-14.935,3.885,255,255,125
-26.66,41.235,-5.035,255,255,125
47.77,27.475,-6.995,255,255,125
38.55,-0.225,6.025,255,255,125
-28.95,-31.425,3.525,255,255,125
-24.63,-47.615,-1.925,255,255,125
18.09,-14.705,-4.545,255,255,125
-28.82,15.125,-5.345,255,255,125
18.09,8.725,-3.105,255,255,125
33.28,19.535,-6.815,255,255,125
12.09,21.605,-6.375,255,255,125
-6.51,-15.275,-1.245,255,255,125
-12.35,43.245,-6.195,255,255,125
4.03,-17.655,2.235,255,255,125
27.71,10.535,-2.685,255,255,125
38.23,-33.525,0.565,255,255,125
-50.39,12.055,-5.025,255,255,125
-29.81,-22.595,0.695,255,255,125
-29.43,39.765,2.175,255,255,125
-16.74,51.475,-0.725,255,255,125
-34.17,6.935,1.025,255,255,125
8.97,40.375,-3.685,255,255,125
40.87,-36.595,1.995,255,255,125
-4.84,40.915,0.615,255,255,125
2.09,17.515,-6.205,255,255,125
35.91,28.595,-2.135,255,255,125
-28.78,16.685,-5.625,255,255,125
-11.43,33.145,1.495,255,255,125
25.48,-2.515,4.955,255,255,125
2.22,8.295,3.395,255,255,125
39.44,-22.435,-1.645,255,255,125
-10.19,51.565,-5.565,255,255,125
-14.43,-31.495,-1.205,255,255,125
32.97,-26.885,-4.425,255,255,125
-35.84,-3.945,7.265,255,255,125
19.18,-16.525,-1.415,255,255,125
-20.46,-42.665,0.235,255,255,125
1.08,22.985,-6.175,255,255,125
24.85,41.335,-6.925,255,255,125
35.51,24.945,-7.015,255,255,125
25.74,-48.165,4.735,255,255,125
17.72,30.235,1.905,255,255,125
28.15,-16.625,-0.715,255,255,125
26.13,36.605,-7.155,255,255,125
-15.72,-5.905,-4.115,255,255,125
-26.0,-40.115,7.535,255,255,125
-13.71,34.185,2.115,255,255,125
-34.63,41.855,-2.795,255,255,125
53.74,-4.255,3.535,255,255,125
3.02,-6.065,-3.805,255,255,125
-47.9,12.935,-4.975,255,255,125
-41.4,15.645,-3.955,255,255,125
-19.56,35.125,-3.605,255,255,125
15.25,-29.495,-4.045,255,255,125
19.12,11.305,-0.905,255,255,125
37.24,28.565,-4.035,255,255,125
-8.46,-7.695,-2.365,255,255,125
2.07,15.595,-5.345,255,255,125
41.36,2.195,7.445,255,255,125
14.76,-39.925,-3.525,255,255,125
-23.07,-15.685,-1.625,255,255,125
33.41,12.205,-6.495,255,255,125
-22.84,50.225,-1.815,255,255,125
28.19,-12.005,-4.245,255,255,125
-38.73,31.645,1.065,255,255,125
23.26,-18.045,-1.865,255,255,125
-10.44,-12.705,-4.295,255,255,125
-31.7,-28.445,5.505,255,255,125
-22.16,13.275,-5.225,255,255,125
0.1,24.865,-6.085,255,255,125
-40.1,-22.975,1.325,255,255,125
-36.93,6.825,4.655,255,255,125
-24.53,34.205,-3.585,255,255,125
-20.37,48.495,-5.105,255,255,125
-20.15,32.395,-3.485,255,255,125
4.06,-25.815,-3.685,255,255,125
9.75,17.015,-6.255,255,255,125
29.82,36.545,-7.225,255,255,125
-8.67,-15.065,-4.235,255,255,125
-16.62,42.605,-6.235,255,255,125
45.44,-9.795,-5.155,255,255,125
49.64,-23.815,-2.845,255,255,125
21.36,-38.515,-1.055,255,255,125
50.74,19.515,-7.185,255,255,125
-4.92,-28.215,-0.075,255,255,125
32.74,-22.785,1.605,255,255,125
22.52,33.985,-6.795,255,255,125
45.11,-2.905,-5.815,255,255,125
-23.51,48.805,-6.015,255,255,125
15.51,-24.065,-4.285,255,255,125
-22.7,-4.975,-1.645,255,255,125
-12.35,2.515,-4.915,255,255,125
-43.8,-20.065,-3.385,255,255,125
-45.51,21.085,-5.425,255,255,125
-3.17,25.715,-5.665,255,255,125
-44.3,0.095,-4.115,255,255,125
33.9,-13.825,-5.675,255,255,125
40.63,11.135,3.125,255,255,125
4.41,52.925,-6.735,255,255,125
-40.79,5.955,4.715,255,255,125
-33.74,-22.735,1.035,255,255,125
33.27,6.865,5.545,255,255,125
23.27,26.145,-6.505,255,255,125
3.2,27.515,-3.515,255,255,125
-7.56,44.995,-6.405,255,255,125
28.18,-18.535,0.105,255,255,125
7.58,33.735,3.875,255,255,125
53.51,-0.895,5.605,255,255,125
0.05,5.845,3.315,255,255,125
39.24,27.155,-7.355,255,255,125
16.79,28.665,0.855,255,255,125
34.55,3.015,8.075,255,255,125
-5.58,-46.505,-1.665,255,255,125
-37.86,14.725,-0.835,255,255,125
-14.45,-48.595,0.025,255,255,125
-11.53,-10.585,-4.265,255,255,125
-10.22,19.575,-5.985,255,255,125
29.33,-19.925,-2.385,255,255,125
46.95,-26.445,-1.765,255,255,125
3.81,48.775,-6.615,255,255,125
-47.51,-10.385,-1.995,255,255,125
35.62,-6.905,-5.785,255,255,125
-40.97,31.315,-5.905,255,255,125
-26.55,3.305,-4.585,255,255,125
14.37,16.235,-6.305,255,255,125
51.83,15.445,-7.235,255,255,125
6.49,35.255,-6.285,255,255,125
-41.36,-23.015,-0.585,255,255,125
37.87,-10.025,-5.815,255,255,125
50.69,-21.975,0.135,255,255,125
-45.12,-23.545,-2.485,255,255,125
22.87,5.585,5.985,255,255,125
6.39,-17.905,2.055,255,255,125
-35.14,-24.245,4.515,255,255,125
-38.06,6.835,7.455,255,255,125
-3.16,-4.625,-4.715,255,255,125
44.93,15.595,-7.045,255,255,125
-15.79,24.485,-5.775,255,255,125
-11.35,41.805,-5.685,255,255,125
-42.53,-4.615,4.075,255,255,125
18.27,-32.855,-3.765,255,255,125
-7.66,-22.635,-3.645,255,255,125
34.08,33.975,3.735,255,255,125
-37.99,-7.505,6.885,255,255,125
-14.59,47.035,-6.315,255,255,125
30.56,-18.525,-4.085,255,255,125
-38.33,39.685,2.485,255,255,125
19.01,19.075,-6.485,255,255,125
19.15,35.045,3.685,255,255,125
20.83,-38.565,-3.255,255,255,125
5.28,-20.195,0.195,255,255,125
-38.47,35.225,3.635,255,255,125
-43.11,-1.025,2.125,255,255,125
-39.95,33.895,2.655,255,255,125
-13.63,38.165,2.385,255,255,125
14.45,45.825,-5.745,255,255,125
35.64,-33.985,4.965,255,255,125
12.28,30.015,1.555,255,255,125
-25.17,-42.545,-2.035,255,255,125
5.58,-34.635,3.805,255,255,125
39.91,-33.015,1.895,255,255,125
-17.24,-30.425,-0.925,255,255,125
3.13,13.145,-5.205,255,255,125
20.91,-23.015,-4.155,255,255,125
-13.56,40.415,1.135,255,255,125
-46.14,-17.785,-3.685,255,255,125
22.92,17.255,-6.585,255,255,125
22.02,2.355,-3.005,255,255,125
20.91,39.895,0.685,255,255,125
-2.36,-48.945,5.275,255,255,125
-36.39,-1.835,6.815,255,255,125
46.59,-17.235,-3.355,255,255,125
-39.68,35.805,5.075,255,255,125
23.96,12.745,-6.425,255,255,125
-29.77,-22.585,-1.945,255,255,125
19.07,13.105,-0.105,255,255,125
43.33,-9.305,-5.855,255,255,125
-43.2,11.295,-0.805,255,255,125
-32.72,34.565,3.415,255,255,125
6.34,-29.115,-3.555,255,255,125
33.65,1.605,7.275,255,255,125
-9.15,12.645,-2.635,255,255,125
-31.89,2.755,3.875,255,255,125
3.29,39.245,-6.325,255,255,125
24.76,-30.455,4.795,255,255,125
40.26,35.275,5.795,255,255,125
7.58,-28.175,-3.655,255,255,125
-18.16,-50.865,2.575,255,255,125
-34.93,33.895,2.825,255,255,125
-16.46,21.225,-5.905,255,255,125
-23.77,3.565,-1.595,255,255,125
49.16,9.905,-6.325,255,255,125
-27.96,-1.145,-4.545,255,255,125
18.13,2.025,-4.105,255,255,125
-2.48,-40.395,-0.245,255,255,125
-52.74,8.945,-4.825,255,255,125
-22.61,50.375,0.995,255,255,125
19.13,7.065,-5.605,255,255,125
-19.04,-41.765,-2.135,255,255,125
35.28,7.445,5.225,255,255,125
-9.05,34.295,2.365,255,255,125
46.59,25.515,-5.885,255,255,125
-2.62,30.315,0.285,255,255,125
10.84,-34.385,-3.035,255,255,125
27.61,4.575,6.795,255,255,125
1.19,-41.135,-1.705,255,255,125
38.01,-6.985,-5.695,255,255,125
26.1,-22.095,-4.085,255,255,125
-19.41,-33.105,-2.765,255,255,125
6.34,-12.495,0.095,255,255,125
-5.89,-54.835,-2.085,255,255,125
-44.43,-3.415,-2.975,255,255,125
32.34,-28.775,3.855,255,255,125
-2.49,-24.215,-1.335,255,255,125
23.64,40.415,-7.015,255,255,125
-24.07,21.865,-5.785,255,255,125
17.14,-5.005,-5.155,255,255,125
-7.45,-8.905,-4.425,255,255,125
-25.73,26.845,-5.735,255,255,125
-31.85,-40.135,-2.465,255,255,125
-30.7,43.625,-6.765,255,255,125
39.21,-6.005,-4.705,255,255,125
-37.19,21.445,-5.525,255,255,125
-11.17,50.045,-6.355,255,255,125
-4.6,-27.375,-1.405,255,255,125
5.21,36.585,-5.595,255,255,125
-33.42,35.865,4.345,255,255,125
6.44,15.205,-6.275,255,255,125
23.34,-28.285,-1.455,255,255,125
36.73,15.325,-6.845,255,255,125
-33.13,-35.855,0.345,255,255,125
-13.94,-17.285,0.785,255,255,125
1.83,-23.715,-2.935,255,255,125
-31.29,15.145,-2.315,255,255,125
5.41,-1.895,-2.285,255,255,125
19.76,9.295,-4.735,255,255,125
4.28,31.025,-3.635,255,255,125
15.57,7.065,-5.775,255,255,125
-10.92,52.655,-6.055,255,255,125
23.23,-23.775,-2.905,255,255,125
-32.33,22.015,-5.615,255,255,125
31.93,-27.435,-0.275,255,255,125
14.51,27.125,-6.195,255,255,125
10.95,53.705,-7.475,255,255,125
-13.06,-33.985,-2.985,255,255,125
-38.68,-15.715,6.165,255,255,125
28.06,-21.855,-4.085,255,255,125
-17.97,34.875,-5.845,255,255,125
-35.86,38.855,2.895,255,255,125
-35.25,6.305,5.475,255,255,125
-32.67,12.825,-0.835,255,255,125
15.73,-15.455,-4.665,255,255,125
26.03,38.565,-7.275,255,255,125
53.61,1.645,7.225,255,255,125
36.88,-35.515,3.785,255,255,125
-37.59,-22.555,2.825,255,255,125
24.61,-32.375,6.155,255,255,125
-9.5,0.655,-4.935,255,255,125
-9.1,31.965,1.075,255,255,125
-21.09,6.875,-4.695,255,255,125
5.6,27.945,-5.125,255,255,125
-26.74,41.905,0.315,255,255,125
7.35,-44.625,2.005,255,255,125
-40.62,-26.845,5.535,255,255,125
-18.5,16.125,-1.755,255,255,125
-33.11,-13.685,4.105,255,255,125
42.38,-3.395,3.895,255,255,125
37.27,31.205,5.405,255,255,125
-4.98,54.235,-5.215,255,255,125
-1.4,54.625,-6.595,255,255,125
-5.92,32.095,1.115,255,255,125
-17.33,2.275,-1.925,255,255,125
35.67,5.645,6.405,255,255,125
-12.52,46.575,-5.255,255,255,125
11.96,-10.775,-5.015,255,255,125
-17.52,35.505,2.615,255,255,125
21.47,40.045,-6.245,255,255,125
-45.06,-4.975,-4.155,255,255,125
-16.71,-32.995,-0.135,255,255,125
31.06,24.505,-6.635,255,255,125
8.84,-14.085,-4.505,255,255,125
-16.92,-24.265,-3.225,255,255,125
43.08,-4.475,-5.785,255,255,125
7.68,-9.985,-4.825,255,255,125
-12.73,30.285,-0.055,255,255,125
-3.98,12.105,-4.935,255,255,125
47.02,6.015,-0.865,255,255,125
-17.15,-22.165,-0.095,255,255,125
28.39,-27.605,-0.875,255,255,125
48.67,0.785,-6.295,255,255,125
-43.26,4.455,3.895,255,255,125
21.3,3.895,2.545,255,255,125
-26.59,42.745,-6.765,255,255,125
41.85,7.235,-8.175,255,255,125
28.19,-12.395,-5.755,255,255,125
46.87,-26.745,-3.085,255,255,125
50.99,-21.495,-3.865,255,255,125
14.33,23.235,-6.275,255,255,125
30.18,-31.745,5.925,255,255,125
-31.94,-41.475,-1.125,255,255,125
-4.43,-54.675,-2.555,255,255,125
30.8,-24.005,0.405,255,255,125
39.62,-31.185,3.355,255,255,125
34.32,11.575,-3.995,255,255,125
14.65,-21.335,-4.465,255,255,125
40.23,-10.215,-5.815,255,255,125
37.1,38.935,5.245,255,255,125
-34.95,-22.575,-2.415,255,255,125
0.18,40.905,0.475,255,255,125
54.32,-2.105,4.865,255,255,125
-16.39,6.325,-3.095,255,255,125
16.85,19.435,-6.395,255,255,125
-19.09,-9.195,-2.005,255,255,125
44.59,-17.455,-5.715,255,255,125
-36.55,-6.245,7.095,255,255,125
-4.36,3.485,1.625,255,255,125
-23.09,-41.925,-0.985,255,255,125
32.4,28.345,-6.715,255,255,125
-15.4,12.865,0.285,255,255,125
-37.42,34.235,2.955,255,255,125
4.28,28.455,-3.515,255,255,125
-2.44,-38.605,0.375,255,255,125
-10.4,-3.445,-2.315,255,255,125
13.11,48.705,-5.845,255,255,125
-2.45,-27.305,-2.815,255,255,125
-12.12,14.775,-0.995,255,255,125
-11.58,-13.375,-4.235,255,255,125
14.46,52.025,-6.065,255,255,125
35.7,-31.775,6.185,255,255,125
38.89,-25.205,-4.875,255,255,125
-4.58,27.595,-5.645,255,255,125
-5.84,-53.435,-2.085,255,255,125
-22.91,34.095,-5.675,255,255,125
-7.42,-5.555,-2.625,255,255,125
18.93,-37.395,-3.395,255,255,125
39.6,-30.985,-4.205,255,255,125
27.17,-27.685,0.315,255,255,125
8.73,-29.225,-2.085,255,255,125
21.16,51.085,-4.615,255,255,125
13.24,14.765,-6.235,255,255,125
31.33,-7.605,-5.795,255,255,125
-8.75,24.715,-4.525,255,255,125
-52.65,11.705,-4.975,255,255,125
50.31,-12.665,-6.265,255,255,125
46.77,-23.995,-5.385,255,255,125
2.99,-19.805,1.825,255,255,125
-47.2,-26.125,-3.055,255,255,125
-17.49,-51.905,2.255,255,255,125
7.64,-18.115,-4.245,255,255,125
25.84,25.015,-6.545,255,255,125
11.04,-19.055,-0.865,255,255,125
40.68,-31.115,-0.125,255,255,125
28.22,-14.135,0.035,255,255,125
-5.63,-21.085,-0.355,255,255,125
-2.65,24.825,-4.625,255,255,125
-8.05,16.965,-3.365,255,255,125
31.13,-1.755,5.295,255,255,125
-26.14,19.985,-5.785,255,255,125
15.88,13.715,-6.215,255,255,125
-40.0,-22.255,-3.075,255,255,125
27.87,22.925,-6.565,255,255,125
28.02,25.945,-6.595,255,255,125
45.22,-12.635,-4.305,255,255,125
34.34,26.645,-7.245,255,255,125
38.0,28.535,5.765,255,255,125
-35.71,23.785,-5.595,255,255,125
-17.15,-19.205,2.315,255,255,125
-14.73,53.085,-5.705,255,255,125
-53.12,-7.985,-4.015,255,255,125
18.48,-18.275,-4.015,255,255,125
6.34,-13.605,-0.785,255,255,125
-24.65,17.945,-5.775,255,255,125
-37.14,0.565,7.285,255,255,125
36.55,-24.525,-4.705,255,255,125
52.99,10.135,-6.875,255,255,125
1.14,11.705,-2.865,255,255,125
-39.08,1.925,6.245,255,255,125
50.96,-17.525,-5.725,255,255,125
33.62,11.485,2.705,255,255,125
14.84,-52.125,-2.975,255,255,125
-11.5,-8.805,-4.295,255,255,125
1.92,-51.325,4.875,255,255,125
5.49,42.055,-6.875,255,255,125
-29.6,41.965,0.425,255,255,125
21.8,-12.375,-5.565,255,255,125
-10.6,37.245,2.795,255,255,125
38.78,29.985,6.115,255,255,125
38.88,28.525,2.345,255,255,125
-39.39,4.445,6.105,255,255,125
-47.6,24.805,-5.445,255,255,125
19.51,-37.665,-1.935,255,255,125
22.84,7.845,4.545,255,255,125
-2.57,27.655,-3.775,255,255,125
-10.37,-1.685,-1.935,255,255,125
-24.11,-6.525,-4.405,255,255,125
30.43,-21.255,-0.815,255,255,125
34.66,28.615,-2.465,255,255,125
-37.02,26.125,-5.465,255,255,125
3.18,-0.855,-2.065,255,255,125
-26.97,36.115,4.495,255,255,125
38.17,-24.775,-1.685,255,255,125
37.57,10.025,3.705,255,255,125
36.52,-4.365,3.475,255,255,125
-33.52,28.625,-5.705,255,255,125
-26.54,-2.795,-4.485,255,255,125
5.32,-12.445,2.035,255,255,125
-13.98,17.965,-3.375,255,255,125
-42.44,-1.975,4.215,255,255,125
44.13,33.325,3.785,255,255,125
-4.56,-26.175,-3.525,255,255,125
42.85,-34.285,-4.105,255,255,125
-8.61,1.905,-4.785,255,255,125
-26.89,38.185,3.025,255,255,125
33.97,-22.295,0.525,255,255,125
-11.82,-25.405,-0.825,255,255,125
1.14,30.865,-5.865,255,255,125
9.09,28.685,0.745,255,255,125
45.97,9.295,-5.475,255,255,125
30.26,10.015,3.495,255,255,125
4.25,21.985,-6.265,255,255,125
-14.39,-48.975,-2.095,255,255,125
-44.27,2.515,-2.575,255,255,125
-41.93,6.655,2.835,255,255,125
47.54,27.435,-1.885,255,255,125
44.21,1.795,-5.765,255,255,125
5.49,-24.205,-1.135,255,255,125
-33.0,7.705,-0.795,255,255,125
-20.1,3.615,-3.795,255,255,125
5.29,-22.505,-3.855,255,255,125
27.87,11.175,-4.665,255,255,125
-4.56,-40.405,-2.945,255,255,125
35.6,10.375,-2.635,255,255,125
-43.66,-18.175,-3.975,255,255,125
33.95,-22.035,-3.265,255,255,125
-16.78,-9.315,-2.095,255,255,125
-33.06,6.975,1.775,255,255,125
9.21,26.665,-4.335,255,255,125
-19.04,51.785,-3.055,255,255,125
27.49,-37.085,5.395,255,255,125
29.77,-24.725,-4.145,255,255,125
-10.29,-4.935,-4.635,255,255,125
-3.89,-53.935,2.885,255,255,125
13.38,43.435,-6.395,255,255,125
-48.6,-25.695,-3.175,255,255,125
35.44,-10.505,-5.775,255,255,125
5.56,-36.825,1.835,255,255,125
26.86,-7.465,-5.745,255,255,125
34.52,-39.835,-3.005,255,255,125
-19.64,-23.695,-2.495,255,255,125
-11.62,35.195,2.765,255,255,125
-33.75,24.885,-5.545,255,255,125
5.28,11.825,0.855,255,255,125
17.95,-16.735,-4.305,255,255,125
23.58,-21.295,-4.145,255,255,125
6.33,-7.675,-4.775,255,255,125
-1.41,-1.975,-4.735,255,255,125
-9.62,-19.405,-1.355,255,255,125
26.45,-26.575,-1.365,255,255,125
5.84,-3.035,-3.915,255,255,125
34.28,-8.885,-5.765,255,255,125
-7.29,8.395,3.405,255,255,125
28.61,37.525,-7.195,255,255,125
29.61,-28.535,3.615,255,255,125
-15.34,49.085,-6.345,255,255,125
29.59,-15.285,-2.945,255,255,125
42.4,-2.235,4.645,255,255,125
51.09,-7.065,-3.605,255,255,125
24.5,24.305,-6.475,255,255,125
-40.68,7.915,3.355,255,255,125
-9.48,41.335,0.525,255,255,125
35.31,28.575,1.365,255,255,125
53.64,-5.845,2.545,255,255,125
28.3,-25.945,-4.065,255,255,125
46.41,0.315,-5.595,255,255,125
17.87,12.425,-3.015,255,255,125
-4.97,30.165,0.095,255,255,125
18.0,23.315,-5.045,255,255,125
-43.75,31.335,-5.765,255,255,125
-42.04,3.665,4.575,255,255,125
44.52,-14.595,-5.045,255,255,125
11.91,39.505,1.025,255,255,125
13.34,-27.315,-4.175,255,255,125
-44.6,-7.965,-2.795,255,255,125
-16.95,-4.595,-3.185,255,255,125
45.47,-10.945,-5.745,255,255,125
-30.33,-37.795,-2.535,255,255,125
40.32,-5.675,-2.875,255,255,125
19.08,10.025,-1.245,255,255,125
5.71,-14.345,3.625,255,255,125
-28.59,-10.815,-4.295,255,255,125
21.45,44.295,-7.155,255,255,125
-18.87,45.555,-6.225,255,255,125
28.6,-40.815,4.915,255,255,125
5.47,-53.155,4.005,255,255,125
17.93,28.165,-6.425,255,255,125
1.29,49.885,-6.605,255,255,125
46.16,-3.575,-6.085,255,255,125
35.06,-21.935,-1.055,255,255,125
25.05,44.865,-7.005,255,255,125
38.37,-21.555,-3.105,255,255,125
-0.22,-17.645,2.335,255,255,125
-37.04,4.125,7.065,255,255,125
-13.11,-15.815,-2.925,255,255,125
30.77,-28.045,3.285,255,255,125
-7.28,-16.245,-3.695,255,255,125
-38.13,-20.555,-3.385,255,255,125
-29.73,23.465,-5.685,255,255,125
-11.83,-22.625,3.705,255,255,125
-41.24,-22.985,-3.305,255,255,125
-8.39,-4.135,-2.845,255,255,125
-36.71,12.025,-0.845,255,255,125
43.28,-7.185,-5.855,255,255,125
47.74,-16.005,-4.805,255,255,125
18.27,-23.855,-4.165,255,255,125
32.26,25.305,-6.705,255,255,125
-27.08,28.225,-5.705,255,255,125
-2.44,29.245,-5.565,255,255,125
0.82,-9.595,-4.655,255,255,125
12.23,-25.405,-4.285,255,255,125
31.17,-10.775,-5.735,255,255,125
14.47,50.455,-5.025,255,255,125
45.24,-1.995,-4.755,255,255,125
-21.35,35.385,-5.155,255,255,125
-27.74,47.425,-6.895,255,255,125
27.11,48.105,-7.735,255,255,125
-16.18,36.055,3.115,255,255,125
3.0,-10.245,-3.585,255,255,125
34.42,-5.015,-4.805,255,255,125
2.08,2.645,1.065,255,255,125
30.96,-30.495,5.055,255,255,125
-16.32,15.375,-5.705,255,255,125
54.89,2.565,7.355,255,255,125
-18.32,-2.905,-2.105,255,255,125
20.27,40.185,-3.395,255,255,125
11.65,27.145,-6.265,255,255,125
-11.63,-52.395,-2.025,255,255,125
42.42,19.205,-6.995,255,255,125
-45.23,18.365,-5.325,255,255,125
50.29,-3.595,4.075,255,255,125
-11.31,-41.275,0.765,255,255,125
7.64,-53.625,2.445,255,255,125
-51.26,3.765,-4.555,255,255,125
-36.29,26.265,-4.165,255,255,125
-27.07,-18.045,-2.765,255,255,125
23.91,-49.145,3.425,255,255,125
-32.96,-33.835,-2.765,255,255,125
5.27,9.875,2.245,255,255,125
49.36,23.325,2.475,255,255,125
9.88,12.095,-5.085,255,255,125
-9.25,-0.435,-2.655,255,255,125
-25.78,-20.265,-3.645,255,255,125
5.08,44.165,-6.525,255,255,125
34.77,28.605,-4.775,255,255,125
-14.84,31.485,0.645,255,255,125
-3.88,-51.655,4.995,255,255,125
16.57,-31.025,-3.905,255,255,125
48.23,6.735,-2.565,255,255,125
3.51,37.885,-5.545,255,255,125
-0.18,-21.015,-2.885,255,255,125
-47.58,16.915,-5.215,255,255,125
-6.56,-23.225,-3.735,255,255,125
-10.74,-24.115,-2.855,255,255,125
-7.4,-2.875,-0.985,255,255,125
36.19,-37.435,2.365,255,255,125
11.16,-42.965,-3.265,255,255,125
33.4,-30.405,5.065,255,255,125
21.52,12.285,-6.065,255,255,125
29.88,-1.795,5.325,255,255,125
40.99,4.975,6.995,255,255,125
-8.72,-28.185,-3.405,255,255,125
-20.99,49.145,-0.055,255,255,125
-10.27,2.895,1.115,255,255,125
3.12,-27.805,0.545,255,255,125
-2.62,41.075,0.435,255,255,125
-10.52,44.235,-4.975,255,255,125
-9.91,21.735,-6.005,255,255,125
-12.64,-19.865,1.125,255,255,125
41.11,17.285,-6.945,255,255,125
-17.01,40.635,1.175,255,255,125
5.24,-28.315,-3.065,255,255,125
25.28,10.415,-3.395,255,255,125
32.91,-20.405,2.455,255,255,125
51.46,4.865,5.815,255,255,125
-15.14,10.865,1.775,255,255,125
-10.89,18.655,-2.495,255,255,125
-21.9,44.235,-6.105,255,255,125
16.14,-40.205,-3.525,255,255,125
4.04,-23.025,-3.795,255,255,125
42.54,-23.455,-3.815,255,255,125
18.82,40.105,-6.955,255,255,125
-21.13,12.385,-2.735,255,255,125
32.79,-19.495,-5.615,255,255,125
-2.85,18.265,-6.125,255,255,125
-7.08,30.255,0.095,255,255,125
-44.92,29.575,-5.605,255,255,125
-4.17,4.655,2.445,255,255,125
-9.9,11.865,0.995,255,255,125
31.45,-5.695,2.805,255,255,125
-8.65,-24.515,-3.175,255,255,125
-34.57,16.485,-4.595,255,255,125
-16.58,-48.405,0.855,255,255,125
-28.38,24.255,-5.645,255,255,125
2.69,23.265,-6.155,255,255,125
31.27,12.055,-6.655,255,255,125
22.81,10.275,0.335,255,255,125
37.67,19.945,-6.855,255,255,125
-35.27,11.395,-0.805,255,255,125
-6.39,45.975,-6.025,255,255,125
-4.78,25.125,-5.275,255,255,125
-28.3,28.515,-3.895,255,255,125
-33.08,-34.065,0.705,255,255,125
37.98,34.765,5.705,255,255,125
6.0,-10.475,0.465,255,255,125
33.26,10.595,-6.465,255,255,125
7.55,33.165,-6.505,255,255,125
41.1,0.075,6.095,255,255,125
27.24,-14.365,-5.745,255,255,125
-46.81,9.035,-4.535,255,255,125
-35.91,41.625,-2.625,255,255,125
27.42,42.405,-7.505,255,255,125
52.57,3.225,6.885,255,255,125
-14.33,12.355,0.725,255,255,125
49.73,-10.055,-6.195,255,255,125
-6.43,53.825,-6.575,255,255,125
-30.8,25.475,-5.565,255,255,125
37.28,-24.365,-0.545,255,255,125
-36.73,6.095,6.905,255,255,125
-5.03,16.415,-5.895,255,255,125
-15.24,12.245,-1.515,255,255,125
-19.55,-51.375,2.005,255,255,125
20.49,13.155,-2.295,255,255,125
-10.27,48.775,-3.865,255,255,125
-35.74,41.725,0.895,255,255,125
12.27,38.475,1.655,255,255,125
-7.78,-28.965,0.495,255,255,125
41.07,-5.675,-5.835,255,255,125
35.29,-29.235,4.315,255,255,125
33.08,17.065,-6.815,255,255,125
29.28,-13.185,-2.715,255,255,125
34.48,20.555,-6.845,255,255,125
52.67,-10.235,-6.275,255,255,125
-16.8,-2.445,0.905,255,255,125
10.03,-10.105,-4.655,255,255,125
11.15,-23.855,-4.215,255,255,125
21.48,27.435,-6.325,255,255,125
-48.92,-23.325,-3.315,255,255,125
-2.35,38.745,1.725,255,255,125
-6.68,35.555,2.975,255,255,125
7.72,36.665,-6.905,255,255,125
-5.24,-2.295,-1.815,255,255,125
27.37,-39.345,5.515,255,255,125
-46.64,-19.915,4.855,255,255,125
5.23,47.505,-6.665,255,255,125
7.51,-29.795,-2.625,255,255,125
-12.78,-23.135,1.565,255,255,125
-8.59,43.455,-6.145,255,255,125
4.27,1.665,0.405,255,255,125
23.91,19.685,-6.595,255,255,125
7.93,-18.755,-0.855,255,255,125
36.45,-21.735,0.735,255,255,125
-12.47,-6.255,-4.465,255,255,125
34.63,-37.505,-2.915,255,255,125
19.17,2.885,-4.895,255,255,125
-28.5,19.785,-5.755,255,255,125
-0.44,48.945,-6.495,255,255,125
38.81,-5.455,-5.775,255,255,125
50.82,14.725,-7.195,255,255,125
32.99,-9.485,-5.775,255,255,125
-33.68,-22.715,-1.515,255,255,125
46.8,-24.355,-3.095,255,255,125
37.81,-11.335,-5.785,255,255,125
30.13,43.025,-7.575,255,255,125
53.26,10.135,-0.025,255,255,125
-10.56,-18.675,-4.045,255,255,125
19.5,-17.095,-2.565,255,255,125
-25.26,-45.165,-2.155,255,255,125
-46.11,24.845,-5.475,255,255,125
-4.04,19.825,-6.095,255,255,125
34.41,-36.015,3.515,255,255,125
12.31,-19.695,-4.495,255,255,125
-17.4,16.815,-5.805,255,255,125
31.85,27.135,-6.695,255,255,125
40.19,38.025,5.865,255,255,125
4.14,-19.545,0.765,255,255,125
28.78,-37.175,4.705,255,255,125
-9.38,-16.565,-4.145,255,255,125
-5.85,3.125,1.325,255,255,125
22.58,29.105,-6.615,255,255,125
7.78,-39.305,-2.945,255,255,125
-5.72,21.545,-6.075,255,255,125
-43.36,-14.065,-4.145,255,255,125
10.22,14.515,-6.235,255,255,125
-39.29,25.155,-5.455,255,255,125
43.75,14.905,-7.075,255,255,125
-12.79,-40.105,2.595,255,255,125
-16.31,52.155,-1.665,255,255,125
35.42,10.365,0.525,255,255,125
-18.46,-27.595,-3.015,255,255,125
-6.7,-28.165,-3.375,255,255,125
15.38,40.545,-4.025,255,255,125
-10.73,-20.295,0.545,255,255,125
31.18,17.605,-6.775,255,255,125
-53.54,-12.245,-3.875,255,255,125
-40.11,-22.645,2.825,255,255,125
11.05,-17.545,-4.585,255,255,125
-9.33,7.605,3.995,255,255,125
35.66,-19.115,-5.565,255,255,125
49.01,-21.395,-3.265,255,255,125
16.42,50.945,-5.035,255,255,125
-49.82,-14.665,-3.755,255,255,125
35.57,11.015,-6.555,255,255,125
17.59,47.425,-4.965,255,255,125
-26.06,-29.545,-1.695,255,255,125
7.62,-17.195,-0.045,255,255,125
-6.41,-27.905,-0.375,255,255,125
-45.27,16.915,-5.275,255,255,125
37.54,10.475,-0.335,255,255,125
45.09,3.325,-5.655,255,255,125
12.85,-37.365,-3.605,255,255,125
24.56,-27.805,-1.025,255,255,125
27.65,-46.755,5.585,255,255,125
38.63,7.935,5.015,255,255,125
16.52,34.965,3.755,255,255,125
-31.12,33.015,2.365,255,255,125
20.66,-10.165,-5.405,255,255,125
-46.11,-15.255,-1.235,255,255,125
17.01,-49.805,-3.015,255,255,125
47.14,1.895,-5.335,255,255,125
-52.1,-3.955,-4.215,255,255,125
42.45,-4.375,1.445,255,255,125
15.76,11.065,-6.035,255,255,125
-18.23,33.845,-3.645,255,255,125
26.45,14.775,-6.585,255,255,125
-15.63,1.965,0.345,255,255,125
9.88,-0.295,-3.325,255,255,125
48.85,-18.555,-1.875,255,255,125
25.01,29.805,-6.725,255,255,125
3.33,-42.525,-2.805,255,255,125
-1.93,32.485,1.395,255,255,125
9.88,6.585,-3.495,255,255,125
-30.45,-1.845,-4.335,255,255,125
2.31,51.465,-4.675,255,255,125
46.7,28.975,-7.215,255,255,125
-27.58,14.185,-5.325,255,255,125
53.66,-7.695,-0.405,255,255,125
-14.9,-19.325,1.595,255,255,125
20.24,50.205,-4.635,255,255,125
52.95,-15.045,-3.905,255,255,125
-42.76,13.945,-0.835,255,255,125
12.03,43.065,-6.965,255,255,125
40.59,-27.905,-4.975,255,255,125
23.87,43.005,-7.105,255,255,125
20.04,36.975,2.695,255,255,125
-13.14,-53.475,-1.965,255,255,125
14.44,0.605,-5.545,255,255,125
-15.89,26.705,-4.765,255,255,125
46.34,27.515,-5.305,255,255,125
22.79,11.455,-6.395,255,255,125
48.78,-13.505,-4.335,255,255,125
-30.74,27.175,-5.695,255,255,125
-46.76,-29.055,-1.395,255,255,125
-37.68,-24.705,4.185,255,255,125
1.82,-16.615,3.115,255,255,125
20.69,-23.865,-1.915,255,255,125
48.9,18.615,-7.125,255,255,125
-18.3,8.655,-4.925,255,255,125
30.58,-18.945,0.185,255,255,125
15.63,-1.065,-5.375,255,255,125
10.39,-28.395,-1.975,255,255,125
-6.05,50.815,-6.475,255,255,125
-14.36,5.105,2.625,255,255,125
30.54,-9.355,-5.885,255,255,125
21.61,24.965,-6.475,255,255,125
-6.39,-5.615,-4.055,255,255,125
-14.59,-8.485,-1.905,255,255,125
21.81,31.945,2.945,255,255,125
-9.02,-42.205,-2.575,255,255,125
10.95,40.165,-4.245,255,255,125
47.46,25.525,-6.945,255,255,125
-18.39,17.735,-5.865,255,255,125
18.41,-18.835,-2.855,255,255,125
-10.68,-18.795,-1.255,255,255,125
-31.92,41.115,1.135,255,255,125
-8.33,38.295,2.185,255,255,125
40.45,-21.445,-3.485,255,255,125
-2.34,-10.345,-3.305,255,255,125
36.94,37.195,5.165,255,255,125
15.73,15.385,-6.275,255,255,125
52.71,8.895,3.325,255,255,125
12.56,3.295,-4.695,255,255,125
52.61,-11.525,-6.245,255,255,125
-31.1,35.025,3.815,255,255,125
38.96,1.635,7.145,255,255,125
6.54,51.645,-7.105,255,255,125
20.4,24.225,-5.155,255,255,125
-13.25,48.875,-6.325,255,255,125
-41.82,8.595,-0.825,255,255,125
49.96,-16.605,-0.855,255,255,125
-37.29,27.095,-4.445,255,255,125
-9.65,-20.345,-0.545,255,255,125
-35.88,9.225,2.265,255,255,125
-17.92,-4.545,-2.285,255,255,125
34.12,-28.405,3.635,255,255,125
39.63,-31.165,2.035,255,255,125
20.71,-19.115,-0.425,255,255,125
-3.99,28.865,-5.615,255,255,125
29.34,-17.825,-0.175,255,255,125
-49.63,7.335,-4.645,255,255,125
3.36,-51.255,4.845,255,255,125
-39.51,-37.015,1.725,255,255,125
2.95,-12.855,2.325,255,255,125
19.11,39.925,0.675,255,255,125
-37.09,2.105,7.205,255,255,125
-19.92,-29.315,-0.655,255,255,125
24.31,-28.965,0.025,255,255,125
-33.72,-8.325,5.145,255,255,125
4.26,-4.555,-4.345,255,255,125
35.53,28.575,-3.405,255,255,125
35.42,28.585,-1.015,255,255,125
40.58,7.515,5.365,255,255,125
36.91,28.565,3.145,255,255,125
25.56,-7.675,-5.755,255,255,125
-27.08,25.675,-4.545,255,255,125
26.27,34.085,-6.905,255,255,125
14.36,43.815,-5.695,255,255,125
-22.43,9.335,-2.615,255,255,125
31.7,-20.045,-3.875,255,255,125
-17.79,43.345,-6.265,255,255,125
-32.03,42.785,-5.505,255,255,125
-36.91,6.815,3.345,255,255,125
-33.68,32.725,2.085,255,255,125
-2.24,3.955,1.945,255,255,125
-20.95,47.375,-3.465,255,255,125
-41.97,5.735,3.675,255,255,125
20.48,-6.275,-5.635,255,255,125
-43.62,22.745,-5.505,255,255,125
40.59,-15.255,-5.625,255,255,125
51.06,-19.725,-1.665,255,255,125
-31.43,11.195,-0.805,255,255,125
42.34,32.975,4.675,255,255,125
-36.28,-22.615,1.335,255,255,125
50.58,-0.145,6.205,255,255,125
-18.82,50.685,-2.025,255,255,125
-10.72,-22.775,0.595,255,255,125
44.79,-24.205,-1.125,255,255,125
-25.68,41.195,-3.265,255,255,125
-43.76,-18.535,-2.815,255,255,125
-5.87,-34.155,0.165,255,255,125
1.31,-32.375,4.725,255,255,125
-14.62,-6.575,-4.225,255,255,125
-16.59,51.475,-6.535,255,255,125
-18.1,29.785,-5.705,255,255,125
37.51,-33.675,-5.465,255,255,125
37.98,-8.825,-3.725,255,255,125
-53.12,2.135,-4.515,255,255,125
28.88,10.595,-6.435,255,255,125
21.44,19.365,-6.545,255,255,125
28.97,15.175,-6.705,255,255,125
53.84,-9.435,-6.345,255,255,125
-2.15,-5.325,-4.225,255,255,125
-28.91,-28.875,5.175,255,255,125
-23.67,12.325,-5.275,255,255,125
-3.43,-20.265,0.275,255,255,125
35.23,-27.245,-2.725,255,255,125
40.5,-23.055,-1.665,255,255,125
30.71,-19.705,2.075,255,255,125
17.9,40.245,-3.475,255,255,125
4.19,12.445,-2.605,255,255,125
-4.25,-4.075,-1.695,255,255,125
-10.91,15.295,-5.295,255,255,125
-30.63,30.835,-5.085,255,255,125
25.84,-27.105,2.425,255,255,125
3.33,46.705,-5.585,255,255,125
10.01,-52.745,-2.285,255,255,125
-13.54,-23.755,0.845,255,255,125
-3.77,41.275,-6.255,255,255,125
-20.24,-1.225,-1.935,255,255,125
-20.47,49.625,-1.065,255,255,125
-12.7,-39.135,1.105,255,255,125
7.58,6.405,-4.705,255,255,125
35.35,-2.785,4.525,255,255,125
-17.61,27.705,-3.535,255,255,125
-19.04,0.325,-0.825,255,255,125
43.41,-24.615,-2.235,255,255,125
-22.49,39.855,-6.565,255,255,125
-12.54,3.805,1.715,255,255,125
40.82,25.025,-7.135,255,255,125
-8.33,2.885,1.115,255,255,125
41.87,9.955,3.895,255,255,125
-8.21,47.445,-6.345,255,255,125
1.17,-50.335,5.825,255,255,125
-37.29,-5.345,7.695,255,255,125
36.37,-27.615,3.135,255,255,125
-9.85,-40.575,1.315,255,255,125
37.05,32.655,5.265,255,255,125
-24.31,-15.355,-4.305,255,255,125
-7.12,15.075,-2.285,255,255,125
-1.58,50.185,-6.535,255,255,125
43.6,-23.145,-4.315,255,255,125
9.57,12.585,-6.615,255,255,125
0.61,-2.645,-3.985,255,255,125
11.04,-13.035,-4.785,255,255,125
-19.5,-21.465,-0.545,255,255,125
28.34,-45.815,5.185,255,255,125
45.55,-18.085,-2.135,255,255,125
26.87,-12.835,-2.535,255,255,125
-5.62,-18.585,1.645,255,255,125
31.34,0.495,6.655,255,255,125
38.17,-27.635,-4.765,255,255,125
31.93,-29.715,4.535,255,255,125
23.23,-14.465,-5.705,255,255,125
2.06,-6.095,-4.595,255,255,125
-0.97,18.075,-6.155,255,255,125
7.69,-6.115,-4.535,255,255,125
-3.12,-34.435,4.255,255,255,125
13.59,27.895,-3.745,255,255,125
-6.59,1.745,-3.455,255,255,125
35.95,-14.435,-5.675,255,255,125
13.36,35.685,3.405,255,255,125
29.54,-27.545,-2.955,255,255,125
5.24,-9.615,-4.765,255,255,125
-16.98,29.295,-3.665,255,255,125
18.89,32.355,3.155,255,255,125
-20.59,-19.125,-0.685,255,255,125
11.96,-40.405,-3.345,255,255,125
31.32,10.605,3.115,255,255,125
30.15,34.435,-7.035,255,255,125
30.03,10.675,-1.235,255,255,125
-28.51,-43.875,-2.195,255,255,125
-41.72,6.645,0.145,255,255,125
-9.47,-6.795,-3.255,255,255,125
4.24,26.135,-4.975,255,255,125
14.43,3.115,-5.665,255,255,125
46.99,5.385,1.935,255,255,125
-15.56,-2.395,-2.405,255,255,125
-7.91,-47.765,0.295,255,255,125
-27.69,9.925,-4.885,255,255,125
-19.94,11.725,-2.585,255,255,125
28.15,-16.755,-1.915,255,255,125
7.81,39.475,-6.195,255,255,125
38.32,28.535,-1.435,255,255,125
15.8,-4.395,-5.225,255,255,125
24.23,10.355,-5.955,255,255,125
49.61,-22.665,-1.015,255,255,125
-11.23,11.025,1.615,255,255,125
52.58,-6.995,-0.665,255,255,125
44.98,6.625,-8.325,255,255,125
51.58,-8.695,-5.835,255,255,125
17.86,14.155,-6.255,255,255,125
6.24,-52.175,3.795,255,255,125
37.11,-18.535,-5.645,255,255,125
33.95,-21.005,0.675,255,255,125
-45.75,-20.695,0.955,255,255,125
33.79,-7.385,-4.735,255,255,125
51.74,-13.145,-4.755,255,255,125
29.01,12.795,-5.625,255,255,125
35.78,-30.805,5.475,255,255,125
35.25,-27.005,2.745,255,255,125
13.13,45.855,-5.795,255,255,125
-6.34,-2.215,-4.335,255,255,125
-14.79,15.905,-3.035,255,255,125
53.78,-13.015,-4.835,255,255,125
-4.37,-5.835,-4.685,255,255,125
-5.13,14.695,-4.795,255,255,125
-13.38,44.075,-4.685,255,255,125
-10.53,-17.035,-4.115,255,255,125
-13.26,17.055,-5.585,255,255,125
-4.2,-3.365,-4.735,255,255,125
-16.72,51.125,-2.995,255,255,125
-29.15,-38.475,1.925,255,255,125
-13.09,12.035,-2.115,255,255,125
4.91,-39.515,-2.845,255,255,125
-12.6,-17.105,-3.875,255,255,125
-9.01,28.335,-5.345,255,255,125
2.0,-10.275,-2.795,255,255,125
37.31,12.865,-6.765,255,255,125
-32.34,-31.905,3.255,255,255,125
-4.34,-12.055,1.615,255,255,125
-26.61,34.445,3.645,255,255,125
-54.81,3.345,-4.555,255,255,125
19.29,-9.785,-4.765,255,255,125
-49.7,-6.365,-4.125,255,255,125
22.94,49.485,-4.645,255,255,125
-40.66,6.695,2.955,255,255,125
48.87,-16.245,-2.595,255,255,125
39.55,-30.565,-2.005,255,255,125
4.1,-7.425,-2.795,255,255,125
-20.7,38.605,-5.965,255,255,125
42.79,5.145,-8.575,255,255,125
2.97,-10.375,0.885,255,255,125
-0.13,7.775,3.765,255,255,125
47.18,4.445,-4.855,255,255,125
1.31,-7.555,-4.675,255,255,125
-5.56,-22.915,-3.095,255,255,125
-27.71,2.365,-4.585,255,255,125
-29.81,20.535,-5.695,255,255,125
-4.33,54.485,-6.605,255,255,125
28.05,43.875,-7.575,255,255,125
32.0,-24.225,0.515,255,255,125
40.42,16.175,-6.995,255,255,125
-14.68,-12.445,-1.935,255,255,125
49.84,-1.655,5.315,255,255,125
48.33,24.595,-6.955,255,255,125
-6.72,26.275,-5.665,255,255,125
-13.86,-35.665,-2.985,255,255,125
-12.48,47.655,-6.365,255,255,125
-0.74,42.325,-6.285,255,255,125
